# .PCD v0.7 - Point Cloud Data file format
VERSION 0.7
FIELDS x y z rgb
SIZE 4 4 4 4
TYPE F F F F
COUNT 1 1 1 1
WIDTH 375
HEIGHT 1
VIEWPOINT 0 0 0 1 0 0 0
POINTS 375
DATA ascii
0.11623715 0.27811715 1.9170002 9.1834095e-41
-0.063550003 0.20668906 1.9435 9.1834095e-41
-0.093893886 0.2361894 1.9440002 9.1834095e-41
-0.072649404 0.22676271 1.9418941 9.1834095e-41
-0.057394288 0.22217144 1.944 9.1834095e-41
0.053675108 0.22853771 1.9434283 9.1834095e-41
0.073941708 0.22714028 1.9418421 9.1834095e-41
0.095116049 0.23388311 1.9407692 9.1834095e-41
-0.097894073 0.25602984 1.9412305 9.1834095e-41
-0.073772989 0.25450787 1.9365475 9.1834095e-41
-0.047261674 0.25902137 1.9396832 9.1834095e-41
-0.02777143 0.26845717 1.944 9.1834095e-41
0.049914289 0.2551446 1.9413338 9.1834095e-41
0.073731609 0.25438601 1.9355632 9.1834095e-41
0.10444994 0.25589648 1.9308912 9.1834095e-41
0.12835321 0.26155716 1.9216962 9.1834095e-41
-0.096838847 0.28037411 1.9401112 9.1834095e-41
-0.073723972 0.28381288 1.9350476 9.1834095e-41
-0.044300944 0.28433493 1.9386094 9.1834095e-41
-0.018308572 0.28985137 1.9440004 9.1834095e-41
0.0018514286 0.29808003 1.944 9.1834095e-41
0.055414293 0.27337575 1.9395 9.1834095e-41
0.075665094 0.27716821 1.9350915 9.1834095e-41
0.10129857 0.27745157 1.9276882 9.1834095e-41
0.12784381 0.27458352 1.9206667 9.1834095e-41
-0.069831297 0.30658132 1.9396802 9.1834095e-41
-0.043536242 0.31223246 1.9429247 9.1834095e-41
-0.014798884 0.31453583 1.942734 9.1834095e-41
0.012642288 0.31952775 1.9438287 9.1834095e-41
0.031474285 0.32770288 1.944 9.1834095e-41
-0.033325717 0.33140576 1.944 9.1834095e-41
-0.012201343 0.34193179 1.942837 9.1834095e-41
0.014787496 0.34422818 1.9404085 9.1834095e-41
0.035706121 0.34815681 1.9439996 9.1834095e-41
-0.0050914288 0.3642686 1.944 9.1834095e-41
0.015911674 0.36828351 1.9426286 9.1834095e-41
0.042369891 0.3747378 1.9436116 9.1834095e-41
0.04940391 0.39591342 1.9439996 9.1834095e-41
0.068206638 0.40501845 1.9439996 9.1834095e-41
-0.092872009 0.14400801 1.9740002 9.1834095e-41
-0.074987508 0.14149036 1.9723787 9.1834095e-41
-0.044556938 0.14360575 1.9729285 9.1834095e-41
-0.015780576 0.14313675 1.9724 9.1834095e-41
0.0067077563 0.14677963 1.9722859 9.1834095e-41
-0.1003694 0.16723937 1.9720249 9.1834095e-41
-0.074798793 0.16452295 1.9632659 9.1834095e-41
-0.04492585 0.16473103 1.9657027 9.1834095e-41
-0.014991567 0.16485341 1.9670148 9.1834095e-41
0.013567245 0.16610342 1.9652147 9.1834095e-41
0.0379498 0.17400207 1.9645715 9.1834095e-41
-0.10382332 0.19531238 1.9671359 9.1834095e-41
-0.075039193 0.19358778 1.9548583 9.1834095e-41
-0.045141924 0.19474621 1.9563535 9.1834095e-41
-0.014981521 0.19477734 1.9664993 9.1834095e-41
0.014931656 0.19429862 1.9616716 9.1834095e-41
0.044591952 0.19551975 1.9559094 9.1834095e-41
0.066423811 0.2049979 1.9558001 9.1834095e-41
-0.12523907 0.23262669 1.9725001 9.1834095e-41
-0.10524148 0.22355229 1.9607213 9.1834095e-41
-0.08477743 0.21528548 1.9521 9.1834095e-41
-0.043195993 0.22570542 1.9527007 9.1834095e-41
-0.017330002 0.22294307 1.9697402 9.1834095e-41
0.016736714 0.22233674 1.9624525 9.1834095e-41
0.039951563 0.22417456 1.9524668 9.1834095e-41
0.070200011 0.21431431 1.95 9.1834095e-41
-0.1252068 0.2508775 1.9695003 9.1834095e-41
-0.11267068 0.25183445 1.9565768 9.1834095e-41
-0.038904801 0.24856675 1.9530001 9.1834095e-41
-0.024935922 0.25283661 1.9570001 9.1834095e-41
0.024236737 0.24264815 1.9577146 9.1834095e-41
0.037437551 0.24641798 1.9517144 9.1834095e-41
-0.021914288 0.27745715 1.95 9.1834095e-41
-0.045367353 0.32659191 1.95 9.1834095e-41
0.011142859 0.31146944 1.95 9.1834095e-41
-0.035750002 0.33707145 1.95 9.1834095e-41
-0.022116883 0.35167533 1.9500003 9.1834095e-41
0.043828577 0.34914285 1.95 9.1834095e-41
-0.014238097 0.36338097 1.95 9.1834095e-41
0.019438099 0.38294286 1.95 9.1834095e-41
0.055507943 0.37163493 1.95 9.1834095e-41
0.065696433 0.38187498 1.9499999 9.1834095e-41
0.026619051 0.39619052 1.9500003 9.1834095e-41
0.044585459 0.40629914 1.9506171 9.1834095e-41
0.073954165 0.40741888 1.9501359 9.1834095e-41
0.055680007 0.42867431 1.9560001 9.1834095e-41
0.074499071 0.43587029 1.9557657 9.1834095e-41
0.092116371 0.43658236 1.9521821 9.1834095e-41
0.074922383 0.45480761 1.9585 9.1834095e-41
0.091280006 0.45267433 1.9560001 9.1834095e-41
-0.096718296 0.088308007 2.0070002 9.1834095e-41
-0.076794468 0.087363556 2.007 9.1834095e-41
-0.059254289 0.089837149 2.007 9.1834095e-41
-0.12042001 0.11468571 2.007 9.1834095e-41
-0.10369892 0.10710156 1.9998604 9.1834095e-41
-0.075917855 0.10625826 1.9927502 9.1834095e-41
-0.046077199 0.10720417 1.9938502 9.1834095e-41
-0.01609296 0.11150579 1.9978541 9.1834095e-41
0.0019028572 0.11988001 1.998 9.1834095e-41
-0.12494984 0.1361873 2.0046668 9.1834095e-41
-0.10656142 0.13558365 1.9895792 9.1834095e-41
-0.075726449 0.12732752 1.9823332 9.1834095e-41
-0.045726042 0.12941271 1.9821668 9.1834095e-41
-0.014083674 0.12880631 1.9848855 9.1834095e-41
0.0077332482 0.13513482 1.9860001 9.1834095e-41
-0.12708105 0.16666561 1.996375 9.1834095e-41
-0.11436199 0.16262658 1.9826088 9.1834095e-41
-0.13216588 0.19548857 1.9937735 9.1834095e-41
-0.11880001 0.19045717 1.98 9.1834095e-41
-0.12924497 0.21739128 1.9896001 9.1834095e-41
-0.0075428579 0.22911429 1.98 9.1834095e-41
-0.13072002 0.26646572 1.9890003 9.1834095e-41
-0.13283333 0.28483865 1.9961596 9.1834095e-41
-0.11416693 0.2876679 1.9925001 9.1834095e-41
-0.12919071 0.30494148 2.0058749 9.1834095e-41
-0.10664321 0.30712992 2.0059409 9.1834095e-41
-0.089837149 0.31920859 2.007 9.1834095e-41
-0.18491264 -0.010721052 2.0369999 9.1834095e-41
-0.16724278 -0.0082609542 2.0357783 9.1834095e-41
-0.14927 -0.0038785716 2.0355 9.1834095e-41
-0.18430001 0.010156471 2.0369999 9.1834095e-41
-0.1642511 0.015069738 2.0342226 9.1834095e-41
-0.13772368 0.018646011 2.0344377 9.1834095e-41
-0.113296 0.025996 2.0369999 9.1834095e-41
-0.16033497 0.042412855 2.0365002 9.1834095e-41
-0.13486046 0.045504797 2.0305502 9.1834095e-41
-0.10501853 0.046989363 2.0303113 9.1834095e-41
-0.080948852 0.052935787 2.0305715 9.1834095e-41
-0.15403602 0.064796001 2.0370002 9.1834095e-41
-0.13584152 0.07434953 2.0296001 9.1834095e-41
-0.10463344 0.074670799 2.0164447 9.1834095e-41
-0.074112654 0.072230212 2.0164006 9.1834095e-41
-0.047170568 0.077575624 2.0208676 9.1834095e-41
-0.024586072 0.084358938 2.0246251 9.1834095e-41
-0.15326002 0.11058001 2.0370002 9.1834095e-41
-0.13529038 0.10363025 2.0224836 9.1834095e-41
-0.11430526 0.093230009 2.0115001 9.1834095e-41
-0.038050208 0.092255928 2.0121429 9.1834095e-41
-0.018365715 0.096353203 2.0139999 9.1834095e-41
-0.15346542 0.13623241 2.0340002 9.1834095e-41
-0.13914664 0.13278252 2.0178835 9.1834095e-41
-0.1548292 0.16726349 2.0320714 9.1834095e-41
-0.14161329 0.1641064 2.0188234 9.1834095e-41
-0.15457928 0.18354359 2.0287499 9.1834095e-41
-0.14587872 0.19257639 2.0130002 9.1834095e-41
-0.15312321 0.22631255 2.0223749 9.1834095e-41
-0.14204426 0.22654265 2.0164442 9.1834095e-41
-0.15213144 0.24649146 2.0220001 9.1834095e-41
-0.14202338 0.24962652 2.0176363 9.1834095e-41
-0.13189518 0.31287232 2.0116155 9.1834095e-41
-0.10485631 0.31854993 2.0108752 9.1834095e-41
-0.089971431 0.31585717 2.01 9.1834095e-41
-0.44371599 -0.39686406 2.0670002 9.1834095e-41
-0.4632957 -0.37487957 2.0623689 9.1834095e-41
-0.43888783 -0.37185287 2.0669992 9.1834095e-41
-0.46448761 -0.34583157 2.0614076 9.1834095e-41
-0.43602258 -0.34388861 2.0659802 9.1834095e-41
-0.41602483 -0.33531338 2.0670002 9.1834095e-41
-0.48736209 -0.31956488 2.0670002 9.1834095e-41
-0.46541953 -0.31420088 2.0619648 9.1834095e-41
-0.43616146 -0.31436098 2.0629687 9.1834095e-41
-0.40815055 -0.31218264 2.066999 9.1834095e-41
-0.38780856 -0.30119145 2.0669999 9.1834095e-41
-0.46165171 -0.28619346 2.0655406 9.1834095e-41
-0.43535852 -0.28530288 2.0628114 9.1834095e-41
-0.40534088 -0.28531134 2.066035 9.1834095e-41
-0.38427818 -0.28395078 2.0656669 9.1834095e-41
-0.45305264 -0.26575717 2.0670002 9.1834095e-41
-0.43215314 -0.25801498 2.0665705 9.1834095e-41
-0.40462974 -0.25534752 2.0624065 9.1834095e-41
-0.37565571 -0.25318 2.0664108 9.1834095e-41
-0.35434288 -0.25000858 2.0670002 9.1834095e-41
-0.42570359 -0.23376788 2.0670002 9.1834095e-41
-0.40500078 -0.22411963 2.064281 9.1834095e-41
-0.37403905 -0.22451249 2.0633602 9.1834095e-41
-0.34914207 -0.22135615 2.0659494 9.1834095e-41
-0.40040904 -0.19980201 2.0665555 9.1834095e-41
-0.37504336 -0.19439028 2.0617352 9.1834095e-41
-0.34636897 -0.19395369 2.0617929 9.1834095e-41
-0.32579857 -0.18750644 2.0670002 9.1834095e-41
-0.37172866 -0.16652568 2.0661616 9.1834095e-41
-0.34499812 -0.16546242 2.0622787 9.1834095e-41
-0.31660777 -0.16315046 2.0667725 9.1834095e-41
-0.28754267 -0.15472974 2.0670004 9.1834095e-41
-0.36339831 -0.14606801 2.0670002 9.1834095e-41
-0.3417792 -0.13648435 2.0641427 9.1834095e-41
-0.31488281 -0.13511348 2.0642061 9.1834095e-41
-0.28492174 -0.13558975 2.0632043 9.1834095e-41
-0.26006824 -0.13082594 2.0646005 9.1834095e-41
-0.23819715 -0.12008287 2.0669999 9.1834095e-41
-0.33609742 -0.11061651 2.0656157 9.1834095e-41
-0.31359243 -0.10704023 2.0627065 9.1834095e-41
-0.28534234 -0.10587928 2.0587015 9.1834095e-41
-0.25518504 -0.10540828 2.058049 9.1834095e-41
-0.22922182 -0.10092582 2.0594518 9.1834095e-41
-0.30438834 -0.08188419 2.0660772 9.1834095e-41
-0.28451911 -0.074859127 2.0618186 9.1834095e-41
-0.25414905 -0.074287854 2.0526557 9.1834095e-41
-0.22411621 -0.074650347 2.0512757 9.1834095e-41
-0.19773662 -0.070205733 2.0575914 9.1834095e-41
-0.17717144 -0.06102572 2.0669999 9.1834095e-41
-0.27774 -0.053972382 2.0650001 9.1834095e-41
-0.25398415 -0.045435041 2.0547776 9.1834095e-41
-0.22436982 -0.044874631 2.0485713 9.1834095e-41
-0.19509768 -0.044877745 2.0485709 9.1834095e-41
-0.16672839 -0.043020841 2.0530233 9.1834095e-41
-0.14569333 -0.03462667 2.0580001 9.1834095e-41
-0.24823561 -0.021937395 2.0621743 9.1834095e-41
-0.2247377 -0.015622601 2.0518394 9.1834095e-41
-0.19861108 -0.017617144 2.0449328 9.1834095e-41
-0.16142404 -0.022250257 2.0465293 9.1834095e-41
-0.13788843 -0.011986739 2.0511541 9.1834095e-41
-0.1148143 -0.0032619049 2.0550003 9.1834095e-41
-0.22185887 0.011815267 2.0572288 9.1834095e-41
-0.1983984 0.017543647 2.0460639 9.1834095e-41
-0.17680001 0.027200002 2.04 9.1834095e-41
-0.12988234 0.0060776789 2.0431876 9.1834095e-41
-0.10641792 0.01514725 2.046073 9.1834095e-41
-0.084757149 0.028257145 2.046 9.1834095e-41
-0.21146861 0.036394287 2.0655003 9.1834095e-41
-0.19293466 0.0443082 2.0533047 9.1834095e-41
-0.17259732 0.048251431 2.0434737 9.1834095e-41
-0.092609525 0.034323812 2.04 9.1834095e-41
-0.073919088 0.045269713 2.0450401 9.1834095e-41
-0.056591429 0.056591429 2.049 9.1834095e-41
-0.18560037 0.071029916 2.0615296 9.1834095e-41
-0.16694385 0.075032391 2.0488234 9.1834095e-41
-0.054400004 0.060228571 2.04 9.1834095e-41
-0.18297088 0.10111944 2.0658 9.1834095e-41
-0.16725829 0.1049377 2.0516474 9.1834095e-41
-0.18174858 0.14266287 2.052 9.1834095e-41
-0.1677613 0.13477311 2.0480714 9.1834095e-41
-0.16627783 0.16077749 2.0499597 9.1834095e-41
-0.15946092 0.19396551 2.0476155 9.1834095e-41
-0.41458753 -0.42605039 2.092875 9.1834095e-41
-0.43279427 -0.40690958 2.0751066 9.1834095e-41
-0.40846997 -0.40180385 2.0862274 9.1834095e-41
-0.42589355 -0.37921447 2.0711255 9.1834095e-41
-0.40478781 -0.37413561 2.0803969 9.1834095e-41
-0.38419992 -0.36966476 2.0927646 9.1834095e-41
-0.40373433 -0.34669703 2.0747373 9.1834095e-41
-0.37807697 -0.34222886 2.0868576 9.1834095e-41
-0.49953076 -0.31306624 2.0726576 9.1834095e-41
-0.39826411 -0.32383701 2.070188 9.1834095e-41
-0.37536541 -0.31543201 2.0793166 9.1834095e-41
-0.35049468 -0.31013039 2.0888891 9.1834095e-41
-0.51957607 -0.28973976 2.0881302 9.1834095e-41
-0.49618059 -0.28534013 2.0774455 9.1834095e-41
-0.47453225 -0.27907547 2.0709004 9.1834095e-41
-0.37003833 -0.28501403 2.0731399 9.1834095e-41
-0.34653655 -0.284565 2.0822635 9.1834095e-41
-0.51253146 -0.26922858 2.0940001 9.1834095e-41
-0.49093318 -0.25717992 2.085568 9.1834095e-41
-0.46538788 -0.25367868 2.0739789 9.1834095e-41
-0.44413477 -0.24980816 2.0700006 9.1834095e-41
-0.36717856 -0.26466432 2.0700002 9.1834095e-41
-0.34147891 -0.25595707 2.0763264 9.1834095e-41
-0.32086584 -0.25011152 2.0897779 9.1834095e-41
-0.48481151 -0.22652969 2.0935385 9.1834095e-41
-0.46430945 -0.22693607 2.0837402 9.1834095e-41
-0.43757546 -0.22401357 2.0736527 9.1834095e-41
-0.33662534 -0.23046908 2.0744352 9.1834095e-41
-0.31631124 -0.22344361 2.0828185 9.1834095e-41
-0.29680461 -0.21553718 2.0915999 9.1834095e-41
-0.45385861 -0.20245802 2.0883002 9.1834095e-41
-0.43463606 -0.19460759 2.0826607 9.1834095e-41
-0.41000128 -0.18943581 2.0727935 9.1834095e-41
-0.33317143 -0.20305717 2.0700002 9.1834095e-41
-0.31410301 -0.19671705 2.0732508 9.1834095e-41
-0.29078326 -0.19174236 2.0868163 9.1834095e-41
-0.42659014 -0.16765262 2.0913532 9.1834095e-41
-0.40483832 -0.16569181 2.0812204 9.1834095e-41
-0.38461542 -0.16107602 2.0710006 9.1834095e-41
-0.30736369 -0.17617406 2.0700002 9.1834095e-41
-0.28326583 -0.16741657 2.0737865 9.1834095e-41
-0.25622469 -0.16203585 2.0848503 9.1834095e-41
-0.43276003 -0.14957145 2.0940001 9.1834095e-41
-0.39942911 -0.14079395 2.0913463 9.1834095e-41
-0.37546039 -0.13355027 2.0810595 9.1834095e-41
-0.35332245 -0.12617168 2.0725389 9.1834095e-41
-0.27008572 -0.14785716 2.0700002 9.1834095e-41
-0.24984522 -0.1406531 2.0758967 9.1834095e-41
-0.23107736 -0.13012765 2.0870001 9.1834095e-41
-0.37159839 -0.1107605 2.0892501 9.1834095e-41
-0.34855145 -0.10369949 2.0800591 9.1834095e-41
-0.32591721 -0.095492661 2.0704288 9.1834095e-41
-0.21866503 -0.10875394 2.079 9.1834095e-41
-0.20499921 -0.10138001 2.0811429 9.1834095e-41
-0.33667776 -0.083334483 2.0868001 9.1834095e-41
-0.31685758 -0.073261216 2.0768576 9.1834095e-41
-0.29768574 -0.061114289 2.0700002 9.1834095e-41
-0.19377452 -0.083441332 2.0746155 9.1834095e-41
-0.17940001 -0.067028575 2.0700002 9.1834095e-41
-0.30640954 -0.053313024 2.0906668 9.1834095e-41
-0.28623021 -0.043986809 2.077677 9.1834095e-41
-0.26614287 -0.033514287 2.0700002 9.1834095e-41
-0.27921739 -0.022201244 2.0869567 9.1834095e-41
-0.2582629 -0.012264382 2.0784006 9.1834095e-41
-0.24807 0.01284143 2.0867727 9.1834095e-41
-0.23284073 0.021786317 2.0783684 9.1834095e-41
-0.22138447 0.044551134 2.0836554 9.1834095e-41
-0.20598574 0.055940006 2.0730004 9.1834095e-41
-0.21420859 0.063002869 2.089 9.1834095e-41
-0.19923621 0.075654604 2.0793431 9.1834095e-41
-0.18841001 0.10061214 2.0715001 9.1834095e-41
-0.1807 0.16084287 2.085 9.1834095e-41
-0.17609286 0.16027859 2.0775001 9.1834095e-41
-0.4050242 -0.43530226 2.110929 9.1834095e-41
-0.38770074 -0.42405218 2.1202502 9.1834095e-41
-0.39587617 -0.40929931 2.10255 9.1834095e-41
-0.38021308 -0.40219373 2.1137273 9.1834095e-41
-0.37154663 -0.37567967 2.1099768 9.1834095e-41
-0.35529241 -0.36742896 2.1236668 9.1834095e-41
-0.36635479 -0.35084701 2.1020625 9.1834095e-41
-0.35012132 -0.34262049 2.1126158 9.1834095e-41
-0.33983338 -0.31896675 2.1090007 9.1834095e-41
-0.32670003 -0.30961913 2.1205385 9.1834095e-41
-0.33184028 -0.28852391 2.1024547 9.1834095e-41
-0.31891364 -0.28269058 2.1142502 9.1834095e-41
-0.52274871 -0.25688422 2.1121626 9.1834095e-41
-0.50370026 -0.24976528 2.103231 9.1834095e-41
-0.33000001 -0.27000001 2.1000001 9.1834095e-41
-0.30953377 -0.25817376 2.1054375 9.1834095e-41
-0.29601681 -0.24575824 2.1108751 9.1834095e-41
-0.51492572 -0.23936002 2.1120002 9.1834095e-41
-0.49587566 -0.22957394 2.1034002 9.1834095e-41
-0.47305146 -0.21180004 2.1008573 9.1834095e-41
-0.30360001 -0.23480001 2.1000001 9.1834095e-41
-0.28788555 -0.2243444 2.109462 9.1834095e-41
-0.48308578 -0.20531 2.1135001 9.1834095e-41
-0.46560425 -0.19490612 2.1069314 9.1834095e-41
-0.44463432 -0.18226001 2.1030002 9.1834095e-41
-0.27864057 -0.19846867 2.1049199 9.1834095e-41
-0.26333791 -0.19114211 2.1124737 9.1834095e-41
-0.45451975 -0.17094886 2.1117001 9.1834095e-41
-0.43855131 -0.16260551 2.1044517 9.1834095e-41
-0.25635618 -0.17246604 2.1086667 9.1834095e-41
-0.23790573 -0.15212667 2.1110001 9.1834095e-41
-0.42640573 -0.14613906 2.1020002 9.1834095e-41
-0.40810731 -0.13185248 2.1005454 9.1834095e-41
-0.22522551 -0.13686024 2.1013849 9.1834095e-41
-0.39707696 -0.11246156 2.0999999 9.1834095e-41
-0.37648261 -0.099665232 2.1022174 9.1834095e-41
-0.3648172 -0.084494874 2.1024001 9.1834095e-41
-0.34695971 -0.074408829 2.1050913 9.1834095e-41
-0.31323344 -0.042283721 2.1083002 9.1834095e-41
-0.29753074 -0.033055 2.10375 9.1834095e-41
-0.30521241 -0.024820004 2.1130004 9.1834095e-41
-0.28654912 -0.011355375 2.1040001 9.1834095e-41
-0.26866668 -0.0033333334 2.1000001 9.1834095e-41
-0.27804643 0.0088527147 2.1124501 9.1834095e-41
-0.2612339 0.015928028 2.1030002 9.1834095e-41
-0.24604353 0.043742545 2.108 9.1834095e-41
-0.23452732 0.050368398 2.1046879 9.1834095e-41
-0.24395527 0.06519524 2.1170001 9.1834095e-41
-0.22579315 0.074532568 2.1120005 9.1834095e-41
-0.20600003 0.086000003 2.1000001 9.1834095e-41
-0.21760614 0.09540613 2.1184282 9.1834095e-41
-0.20254143 0.10115607 2.1135001 9.1834095e-41
-0.39464289 -0.44398293 2.1360002 9.1834095e-41
-0.37716568 -0.4307566 2.1475158 9.1834095e-41
-0.36848006 -0.40849715 2.1387274 9.1834095e-41
-0.3576366 -0.3949829 2.1312001 9.1834095e-41
-0.3631143 -0.38542861 2.1300001 9.1834095e-41
-0.35109654 -0.37715912 2.1309476 9.1834095e-41
-0.33698553 -0.3466289 2.1363161 9.1834095e-41
-0.32625693 -0.33964232 2.147182 9.1834095e-41
-0.31866276 -0.3144356 2.1368752 9.1834095e-41
-0.30723119 -0.28889972 2.1393003 9.1834095e-41
-0.29742146 -0.27298 2.1390002 9.1834095e-41
-0.30225718 -0.26980001 2.1300001 9.1834095e-41
-0.29061964 -0.25404599 2.1339135 9.1834095e-41
-0.27675509 -0.2222735 2.1300004 9.1834095e-41
-0.26844764 -0.2143524 2.1300001 9.1834095e-41
-0.27385718 -0.20894288 2.1300001 9.1834095e-41
-0.26278859 -0.1994229 2.1324 9.1834095e-41
